# .PCD v0.7 - Point Cloud Data file format
VERSION 0.7
FIELDS x y z normal_x normal_y normal_z curvature
SIZE 4 4 4 4 4 4 4
TYPE F F F F F F F
COUNT 1 1 1 1 1 1 1
WIDTH 56
HEIGHT 1
VIEWPOINT 0 0 0 1 0 0 0
POINTS 56
DATA ascii
0.0033730429 0.0033592193 0.0033836905 -0.58009136 -0.57732505 -0.57462138 -1.3095616e+16
0.015011606 0.0025636568 0.0025653411 0 -0.70383823 -0.71036035 -1.3095607e+16
0.025491783 0.0025794653 0.0025505503 0 -0.70307994 -0.71111077 -1.3095607e+16
0.034516051 0.00255902 0.0025555969 0 -0.69788045 -0.71621436 -1.3095605e+16
0.045027994 0.0025564092 0.0025654777 0 -0.71689659 -0.6971795 -1.3095604e+16
0.052766338 0.0043119425 0.0043728785 0.96579129 -0.19215637 -0.17413521 -1.3095617e+16
0.0032258246 0.015838295 0.003210434 -0.61762995 0.49636832 -0.61004227 -1.309561e+16
0.014473718 0.015601007 0.00078837975 -0.01969197 0.25263929 -0.96736008 -1.3095602e+16
0.025494577 0.01495847 0 0 0 -1 -1.3095597e+16
0.034534719 0.014965019 0 0 0 -1 -1.3095597e+16
0.04500268 0.015018635 0 0 0 -1 -1.3095597e+16
0.052870583 0.01501517 0.0043172268 0.98222309 0 -0.18771718 -1.3095604e+16
0.016788991 0.024231289 0.0039542154 -0.8501128 0.40172759 -0.3404749 -1.3095599e+16
0.026143193 0.026707705 0.0019377359 0.28395161 0.41823274 -0.86281681 -1.3095601e+16
0.034544606 0.025967309 0.0026826556 0.025309356 0.81003952 -0.58582884 -1.3095597e+16
0.044148255 0.026354283 0.0015761221 -0.21932594 0.37903807 -0.89901406 -1.30956e+16
0.05286574 0.025467325 0.0043119597 0.9810105 0 -0.19395484 -1.3095604e+16
0.017655382 0.034473058 0.0033143517 -0.91773617 0 -0.39719057 -1.3095597e+16
0.023556415 0.033942115 0.0039837728 0.87462175 0.44079861 -0.20182501 -1.3095607e+16
0.046768345 0.033885531 0.0034488526 -0.80808669 0.44491386 -0.38606679 -1.3095601e+16
0.052856505 0.034484036 0.0042853374 0.97721189 0 -0.21226591 -1.3095607e+16
0.018330768 0.044786494 0.003867602 -0.92461228 0.28675875 -0.2507219 -1.3095603e+16
0.023496911 0.045628592 0.0040346654 0.88130927 -0.40861827 -0.23732914 -1.3095603e+16
0.046896264 0.045615833 0.0034413245 -0.82013917 -0.39877611 -0.41030404 -1.3095603e+16
0.051764816 0.045351002 0.00470301 0.9473238 0.30384493 -0.10127115 -1.3095603e+16
0.025843611 0.053565387 0.0042383648 -0.55794382 0.7782436 -0.28815868 -1.3095607e+16
0.035173599 0.055538986 0.0038577539 0.15163605 0.51756364 -0.84210116 -1.3095599e+16
0.044021808 0.053430356 0.0041397493 0.58476979 0.67689395 -0.44705576 -1.3095603e+16
0.0037978725 0.003875281 0.011512528 -0.25245404 -0.25294477 0.93396246 -1.3095601e+16
0.014995891 0.0033676128 0.011618571 0 -0.31622776 0.94868326 -1.3095597e+16
0.025541084 0.0041786921 0.011696604 0 -0.2631174 0.96476376 -1.3095599e+16
0.034879267 0.0046375878 0.011727813 0 -0.20929947 0.97785157 -1.3095602e+16
0.04522739 0.0045990301 0.011774411 0 -0.18433928 0.98286265 -1.3095602e+16
0.052156541 0.0051745698 0.011373689 0.56950498 -0.10602638 0.81512117 -1.3095607e+16
0.0039716186 0.015442583 0.011566 -0.2354977 0.19239306 0.95264149 -1.30956e+16
0.014704761 0.014911392 0.011937695 0 0.041586597 0.99913496 -1.3095601e+16
0.024748875 0.015141597 0.011999997 0 0 1 -1.3095604e+16
0.034277502 0.014298424 0.011999995 0 0 1 -1.3095601e+16
0.044802953 0.014490929 0.011999995 0 0 1 -1.3095599e+16
0.05227907 0.015144009 0.011292163 0.62469506 0 0.78086883 -1.30956e+16
0.017589215 0.024637748 0.011433327 -0.39155716 0.23385713 0.88994038 -1.3095602e+16
0.024993641 0.025444165 0.011851997 0.070388339 0.098683685 0.99262631 -1.3095604e+16
0.034156907 0.025744392 0.011682769 0.0091686212 0.25846428 0.96597731 -1.3095603e+16
0.04478338 0.025604643 0.011868461 -0.049569909 0.085438997 0.9951095 -1.3095603e+16
0.052500885 0.02545684 0.011239997 0.70710683 0 0.70710683 -1.30956e+16
0.018053146 0.034963287 0.011556193 -0.39391929 0 0.91914499 -1.3095601e+16
0.022720907 0.034233585 0.011491106 0.43456969 0.22029655 0.87328035 -1.3095604e+16
0.047535863 0.033939477 0.011580178 -0.31530035 0.17636651 0.93245947 -1.3095603e+16
0.052458089 0.034487884 0.011288822 0.69851828 0 0.71559215 -1.30956e+16
0.018483181 0.043931279 0.011319767 -0.60290438 0.18874773 0.7751649 -1.3095602e+16
0.023005188 0.046104643 0.011354948 0.51315051 -0.23911932 0.82431698 -1.3095601e+16
0.047664739 0.044861153 0.011512264 -0.3832081 -0.19828172 0.90212846 -1.3095603e+16
0.051556781 0.044892564 0.011153708 0.73161864 0.24794734 0.63502473 -1.3095603e+16
0.026120214 0.05332398 0.011336692 -0.22794116 0.32034069 0.91946977 -1.3095604e+16
0.035126198 0.055539906 0.011405925 0.025260743 0.089948244 0.99562603 -1.3095602e+16
0.044092402 0.053112328 0.011366544 0.19395797 0.23622155 0.95214468 -1.3095603e+16
